ply
format ascii 1.0
element vertex 683
property float x
property float y
property float z
property uchar red
property uchar green
property uchar blue
end_header
0.45254956602991825 1.2005560284031704 -0.29940432360789493 145 184 18
-0.3243630062318795 -0.3580243639401414 -0.25247984136326773 18 60 175
-1.1187839349301811 -0.6488410866534698 -0.28673835064375536 19 111 188
0.28786085904994374 0.5015036305110453 -0.28973703477637325 147 179 18
-1.1587660907599167 0.95627400328857 -0.2549327303394761 18 175 67
0.43766174377030354 0.6661912042143481 -0.3656096742452913 140 155 16
0.7459964952628241 0.3206165597154963 -0.2287353242222043 173 71 17
0.7847620174532035 -0.35944193613751735 0.5424473019916041 255 25 115
1.3632588096381553 0.27961356742849763 0.2660680338438341 233 45 23
-0.8369294159836852 -0.7302446728300341 -0.15374259961699535 17 70 166
0.24367999229061704 -0.698765253127618 0.25307135898663186 233 23 212
1.0368529928384347 0.939353023198497 -0.1233686685779897 198 170 20
0.045533003491477604 0.57306392286542 0.2525415500869176 131 218 22
-0.45342583442250456 -0.2823587776551758 -0.21343388871151817 19 126 193
-0.29698243820609965 0.8053888079524606 -0.16491026514438087 50 166 17
0.9790802887098669 -0.6317413192587339 -0.1793082893020233 167 17 89
-0.7817920434455223 0.23462363895427596 -0.16914531117779052 17 167 112
-0.2061013404405228 -0.8704931888757464 -0.5266655001376187 46 15 153
-1.3099674072381946 -0.12119674753696022 0.2216745833943478 24 237 232
1.0296903917688887 -0.7700050802402008 0.22916302990341958 217 22 124
0.6244014164025253 0.4330414206611274 -0.18080579836710514 165 139 16
0.34472291322872955 0.43000841597698164 0.28471780085671294 200 223 22
-1.31065718019704 -0.25737906612752254 0.2737568236238213 23 211 231
-0.9420320299423097 -0.5564227301795307 0.21995127535817371 25 146 249
-0.952410795076595 0.5338370275624862 -0.5491304987288524 15 153 80
-1.0042698893899482 -0.744725902286354 -0.13096844162395138 20 92 198
0.6222749014829899 0.3939252155345424 -0.20440983750537933 171 140 17
0.5364185948299968 1.1294341676387682 -0.236940149923431 144 173 17
-0.604175679290939 -0.8275873464348001 0.17239930523335895 25 51 245
-0.015013707832083787 -0.6214639496041536 -0.15631282880369693 110 20 196
-0.929297858952656 -0.37992122220603 0.5009799362438516 25 187 255
0.5699460066153459 -1.0368646715858307 -0.2854396118803074 157 16 135
0.5038310590833254 -1.3383614167963933 0.28158033429100776 223 23 227
0.8032730656682628 0.020487715500957848 -0.3255782097969212 157 16 33
0.6247592847462453 -0.8714287666570283 0.4820519900113847 254 25 194
0.7655359075853931 -0.17083052454951664 -0.43763733449586506 155 15 53
-1.000322958942616 -0.12015482428621153 0.5492958771770537 25 255 246
0.9406888173550348 0.5321098976497534 0.5519943494113528 255 160 25
0.9860052009483116 -0.5713451811348291 0.17604027987488796 244 24 124
0.6284622144026241 0.07992833021017176 -0.23465285433076868 175 18 32
-1.3749764088748002 -0.1133515945271082 0.27685575543754565 22 223 221
-0.9575435493172382 0.30383714805684087 -0.4399497933285237 15 154 101
1.1721412751202314 0.7432921907215034 -0.20659895629480507 171 117 17
-0.47277356650773394 0.6955263500096661 0.2719333506625353 23 230 29
-0.07127879157886385 -0.4751174554198883 0.22889208259963056 77 22 215
0.4861389715925493 -0.6694860887165861 0.33163658763037385 252 25 179
0.8594014488871012 0.4419140299407434 -0.3392480864594 157 94 16
0.9832016823795611 -0.40814456288331474 0.21909262324969697 249 25 106
0.19399476059843584 -1.3731547782598366 -0.197604551355898 125 17 170
-0.6044677059175108 -1.036570035810041 -0.24452580186013573 19 22 191
-0.42978092552949193 -0.3272683602661039 0.2780161187756882 22 133 221
0.02909034099425887 -1.113556104362916 0.4587237716671511 156 25 254
0.9073593294983846 0.4826446995424085 0.48398107313956945 254 160 25
-0.5942708344773059 -0.2877721123326926 0.18698109116699502 24 178 238
0.13393147395508603 -1.431108091673045 0.03324713546120686 135 21 206
0.15363606707417407 -0.6951081722578998 -0.28374258046235223 174 19 185
-0.6701593729303441 0.39867715715314184 -0.2912209113746894 18 184 90
-0.18323489167330098 1.4083724527593469 0.28403078430296436 101 224 22
0.5691042698046711 -1.1336476864745493 -0.17438292568898317 162 16 145
1.1066119267316359 -0.13501445903070047 0.18716113326616574 247 25 68
-0.385874543103088 -0.6053640819437671 -0.46042401050955234 15 28 154
-0.5427576682502707 0.7976081742543278 0.1801358447463999 25 246 31
-0.7533514655580933 0.20805487102090706 -0.1830875957072394 17 170 116
-0.429719459592483 -0.4582431989012355 -0.22783106477487142 16 50 159
-0.042041225329250205 1.0202440737265346 -0.5512838485758577 79 153 15
-0.7632330106621984 -0.4490465279738891 0.5525427977578914 25 153 255
1.0354879017131489 -0.7978971563209908 0.006824141758926577 204 20 120
1.2173646275156567 0.1107868003646265 -0.15995030834414545 165 16 21
-0.2437614649953811 -0.3788099938171321 -0.2295360391410877 17 29 174
-0.3304057284857945 1.1180522623534208 -0.5112536931689273 51 154 15
-0.5537141807540215 -0.8819542402804075 0.18114343263966798 24 34 244
1.2470291685389578 0.7896188530727698 0.2113457764847544 214 143 21
-0.6609579236846355 0.026951658073234908 -0.2524394204970506 19 190 153
0.822406598670829 0.9233988044775765 0.171820491138691 240 229 24
-0.8289372823628116 0.16088023255463357 -0.2096861830407369 16 161 118
-0.8318082307772112 -0.8755113152068503 0.23892683526424735 22 72 218
0.9258976969684064 0.4616812014793765 -0.48093809253934316 154 84 15
0.6243166894210774 0.363103709819281 0.23777697473773743 233 178 23
-0.3987245226478731 -1.1612100629433668 0.11846767562345487 52 21 209
1.370332892131924 0.696318886524948 -0.03452781466799544 202 111 20
0.19646939040047662 -1.3953247522066543 0.29209663871841085 164 23 227
-0.1866738889537526 1.0974045580773881 -0.5436665724492195 65 153 15
-0.33711305659406404 -0.33719223087872763 -0.2926665019563027 18 72 181
-1.2390251764189086 0.8067022598786227 0.27684535844547825 23 231 111
-0.6632542229795779 0.6895991628045338 -0.17299538778691415 16 164 47
-0.9025236400151682 0.7806680536322538 0.5417381018447218 25 255 94
-1.1105620474188918 -0.2183871997823113 0.34401941080221404 25 237 252
0.028872553177422995 -0.6680376423110749 -0.26137160271193743 131 19 188
-0.6087138642990708 -0.1561204314467922 -0.008953051645072267 20 204 203
0.24151155007582742 -0.6205224963458167 -0.10510409675082046 199 20 174
0.3304363715784281 -0.9098829705974298 0.36531660058305376 253 25 241
-0.6508807941658201 0.2852279678442914 0.20052079716306864 21 214 125
0.28200139735491525 0.5679500931857664 -0.19310239178180078 136 169 17
-0.3576665210676725 -0.3486479532478894 0.2563386314533961 23 83 233
-0.07991197365539443 -0.6953993961136434 -0.17072383083413994 71 16 163
-1.404037160263574 -0.09257401010561767 -0.10642092423952942 20 199 195
-0.6174591151916398 0.4742297370857935 -0.03359807656129019 20 202 81
0.27623818024351887 -1.0694244437221707 0.5535158323796517 236 25 255
-0.11199040408407729 -0.4581451568801486 -0.2531407470782441 49 19 188
-0.8199353362099617 1.0975580938022664 0.289475460646955 25 251 45
0.3391917495285821 -0.7841817161616822 0.23931144334154011 249 25 220
-0.9906836030050586 0.3862207420327453 -0.522504858785393 15 153 94
0.11747866249866122 -0.9950086657876416 0.47785626425309863 184 25 254
-0.8328628809551628 -0.6172559688434283 -0.28561810634500406 16 77 157
1.2031822384966155 -0.3360811343342447 -0.2888125133175039 187 19 67
-0.5229863888192081 -0.3027714877036716 -0.22498042018073924 17 113 173
0.6722165766603408 -0.6834978178924582 0.5177237135168484 255 25 167
-0.8733189844329587 0.01898856598984161 0.2674176984451672 25 250 211
0.039518572889082816 -0.9898673080034665 0.5207238106114074 160 25 255
-0.5815178388192929 -0.9556373579455655 0.1974488076342157 24 33 238
0.18843950601365714 -0.6357947671564436 0.10376014526653939 209 21 193
0.6924218079747141 0.5386575293316896 0.36400045008625503 252 220 25
-0.4061296713750836 0.9511475276488813 0.41277614480057717 63 253 25
-0.531829336160579 -0.4201692547900101 0.26211727660150436 25 116 249
-1.2141009841146762 -0.45674573578088357 0.274292715587335 23 170 227
-1.1978293947728713 0.748578573920165 0.166973932982231 24 242 119
-0.8651895416732739 -0.34619226935679426 0.5337579162687185 25 201 255
-0.6948136802628517 1.2874255081852568 -0.17742057946413442 23 167 17
-0.24538492679621526 -0.36853487318894995 -0.28195345815228534 18 35 182
0.7788911385418238 -0.3194999022738923 -0.5013131493437717 153 15 65
-1.321549055260275 -0.3460595815920599 -0.21498111677093157 19 165 193
-0.03679952379368089 1.3904494938435015 0.2537393792770841 113 218 22
0.5007000546357534 1.1609502717361984 -0.27493891242214175 146 178 18
0.2907443304565586 -0.6791535287359989 0.18507940771843756 239 24 208
1.1426335074471783 0.40602539238885527 0.4064707460951287 253 87 25
0.34961439510628795 0.4288496169746135 0.006362245083367142 183 204 20
0.6496063313896716 0.016257476093604464 0.16716778648811215 239 24 53
0.29511008521041604 -1.0285961226041778 0.5395437840439776 239 25 255
-0.5778025149560704 -0.9306076656607798 -0.19784096827985725 17 26 170
-0.17169261490555598 -1.2396104265758838 0.2882086213665647 93 23 227
-0.39737124349868136 -0.9415391818834409 -0.21303834111342054 27 16 160
-0.3601804029593831 -0.42789654039558994 -0.18658361247095462 16 43 163
0.3288856865760772 -0.6687980580004727 -0.1682682877153629 168 17 135
0.32253591795517583 -0.5117249607015844 -0.3033396548376226 184 18 130
-0.8974424711108895 0.7304692510411464 0.5408977265066585 25 255 101
-0.09982904463574646 -0.46170265850350606 -0.15346380292817505 60 20 198
0.10878153761409642 -1.1867220668441387 0.33544792206628177 168 25 251
-0.5933695446357871 -0.48306275790780995 -0.4863621516361243 15 65 154
1.3138733915196208 0.7120013678859806 0.15767444798380814 212 122 21
0.6035729516584878 0.8306021033551267 0.4016198246505596 238 253 25
0.19667801964216297 0.6878948467849793 0.21011690988770074 175 247 25
-0.9770723953628487 -0.39440287884934844 -0.45031213019759 15 118 154
-1.2559970798207354 -0.4844441525289222 0.13669073249776195 21 158 210
0.5241040115342209 1.1345105071324215 -0.24910136691333398 146 175 18
0.6091688176749704 0.03594269442809471 -0.28057682138305534 178 18 39
0.5868391987350252 0.10451830671932812 0.17044261666721183 212 21 27
-0.4258900408142413 -0.3021409415304091 0.27084945434803853 22 137 218
-0.3654121113236989 -0.3870079255492604 -0.21991226621417054 17 64 173
-0.5715941937760346 -0.41503646064576216 -0.2617681593779939 16 80 158
0.27048784918715907 1.1296120790004653 -0.19907014219979333 111 160 16
-0.1519991916446134 -1.2153241226793576 0.18280525856150928 101 24 238
0.5813720490745125 1.0743309475836882 -0.2146892874093962 149 171 17
-0.4652145166108782 -0.3178713183664011 0.23510886681105447 23 134 234
0.6579143024723952 0.3536709112071853 0.2788901251797975 230 160 23
-0.6680624550445945 0.1069104140929616 0.2044278241739234 21 214 157
0.7300794423478525 0.11925141405652723 -0.16923524582423657 166 17 21
0.222543031042086 -1.4299350259790968 0.28954299124054617 163 22 221
0.45339164787129443 -0.13921157176247578 0.06970933248899162 207 21 82
-0.37598723852338894 0.7527334061888794 0.2601289949508035 42 231 23
-1.015805653638887 0.9059858460205363 0.26227054091299884 25 249 89
0.03134289129258525 -0.6591660090883231 -0.16107158966946844 123 20 196
-0.996348972497776 1.2378671463961615 0.23430168268377827 22 217 48
0.31153198392627723 0.9077781223832727 0.5400901936223332 191 255 25
1.100274111513202 -0.7052080737925329 -0.09587976049192634 199 20 106
-0.39218814541231795 -0.659232242902419 -0.5238495370729884 15 22 153
0.46593236318413844 -1.1109283764769362 0.3627253181530988 252 25 243
0.9984396577562528 -0.8253674668917853 -0.08376338209205009 201 20 121
-0.006173771494523184 1.1217754778591493 0.4056210911296865 135 253 25
-0.6734463546821614 0.6341094701093161 0.16590861737444934 24 243 77
-1.0310257902091404 0.7495647139708331 -0.3496141223680775 16 156 68
0.3849133466314427 -0.9966320371401104 -0.5635976431559081 153 15 148
-1.424072050016884 -0.017672077861832225 0.26381080247326305 22 218 205
0.25008727564676814 -1.0781778517629546 -0.5602050354944992 129 15 153
-0.7237562146231916 0.5717492684802012 -0.18069423085406044 16 164 61
-0.41006133635304737 1.2057299151285858 -0.38861738415683006 45 155 16
0.8513437637677657 -0.4306724242559083 -0.47633844795606134 154 15 72
0.6205187498007403 0.12498632799727336 -0.26846103402569665 178 18 23
-1.2056967601843311 -0.5586381536295756 -0.1374775701885459 20 135 198
-0.6083705450714173 -0.9435439006597467 0.23822332181196795 23 39 234
0.12146138497509112 -0.675665516322691 -0.003865723825296608 192 20 204
-1.06452571124896 -0.7427682241828697 -0.1395563108255819 20 100 198
-0.3479689696133208 0.935723550702665 0.30175148491443093 69 251 25
-0.5408962868617602 -1.058839340580159 0.22465081392225345 27 22 215
-0.6634537070261587 -0.8454772726352324 -0.15532113622993712 17 39 166
0.8121440315555808 0.6018167806092973 0.5417903733766848 255 212 25
-1.4099000297907902 0.19734329427511665 0.26211835545001994 22 220 180
-0.6233493702852326 -0.8738853869279112 0.18707485199469434 24 47 240
-0.4213820269554649 -0.8951113049399582 0.2552316692427922 38 25 249
0.3754282834768538 -0.7684639903108521 -0.23050197715907333 159 16 137
0.36788855863294867 1.2457859538056042 0.2687478240133943 163 221 22
1.2546872546021286 0.6788760717557184 0.22121231401987143 235 132 24
0.988600971668161 0.41445119507541395 0.525213503066586 255 108 25
-0.49035062292372184 -0.9394189254389884 -0.14347821235368316 19 16 164
-0.5575531964245581 -0.6086683819045654 -0.5498424660757245 15 46 153
0.08153567206529211 0.567903357870771 -0.23639217352047168 118 191 19
1.036220508483616 -0.23634491314928646 -0.26710965174283363 159 16 54
-1.3648762478789425 -0.20560236419830455 -0.2305955076239585 19 186 193
0.537872464899097 -0.5133540622217317 -0.27602491559894804 158 16 97
-1.2552486821677822 -0.274543589774662 -0.19888234731783666 17 152 169
-0.4302441691988083 0.7749838399142321 0.19815712350767156 30 238 24
0.0699364796466608 -1.0905007614427156 -0.5073123379036912 100 15 153
0.4844282934570424 -0.16082482898687522 0.2850806637059079 223 22 92
0.8950610188660564 -0.052538651927425545 0.5426133861393732 255 25 63
-0.39187918718670345 1.4537436636108323 0.1363262379016278 72 210 21
-0.6027354838604346 0.47589208141781547 0.02986751971600554 21 206 82
-1.0429193201008506 -0.5645914933805076 -0.1594190244448158 16 103 165
-1.4251729721289625 0.37634181229553165 0.03396369991610812 21 206 149
0.722392783165007 0.28929766937190254 0.24453111196332922 234 84 23
1.026536397220782 0.6629471059526573 -0.30093971091313504 157 114 16
0.24389775310293363 -0.7712840423391945 0.1850696764532796 240 24 229
0.12246737649975795 1.1954826740612778 -0.1836406262490603 100 163 16
0.8819736195625665 -0.0429129149815185 -0.5104035831189124 153 15 38
-0.8132963562940702 0.8470480383737841 0.575041903333003 25 255 70
0.4240514113611069 -0.24171966703739123 -0.23071327733979757 191 19 89
0.5449631550180523 0.35036408476622816 -0.2174491668978521 193 165 19
-0.14994383650025753 -0.4257815971860133 -0.30757324598795144 36 18 184
-0.7183589762423134 0.19048139485373403 -0.276263353868695 18 177 120
0.0664686299706301 -1.3104640874313318 -0.19251775713241204 104 17 169
0.606636149616357 -1.3303291941375233 0.10371066967612011 209 21 202
-1.2081488702407814 -0.5409769070823462 -0.22272959886757265 19 134 193
0.9282546428852572 0.9965239324749224 0.19293848613842463 214 198 21
0.018352541809902465 0.5856514286740667 0.15915008088503424 118 210 21
0.7859469815512241 1.0556798626708421 0.2796900028780619 215 220 22
0.4601677514707373 -1.0657017909707738 -0.41551923367380506 155 15 143
0.34350273994385483 -1.2908164065119034 0.17815431751579042 217 25 245
0.8705274291501878 0.1734314799698124 -0.36107357909108223 156 18 16
0.7523235795126265 0.19471430649370336 0.16795074706685054 240 40 24
-0.5904178860773973 -0.27665904532874175 -0.2525320305815984 17 135 174
-1.1091112123915285 -0.280424506355303 -0.32380865826283795 16 139 157
-0.24535319625660984 -1.0009180480389201 -0.3314658423970191 52 16 157
-0.0901089155731021 -0.769759726652128 0.2629610466280931 110 25 250
-0.32244924488771887 1.420143896602375 -0.2854662052984912 71 184 18
-1.3078434873203162 0.704103201315369 0.16294635992490225 21 210 115
-0.5686533652302415 -0.2369634426530176 0.2853323298189196 22 183 220
1.0358960803538144 -0.7375165887041363 -0.2599099914866778 191 19 107
-0.2060874869074704 1.3577152571266715 0.22285623953368394 103 235 24
0.1530687431490455 -1.2865905984157693 0.18608867623497782 175 25 246
-0.19065461797384523 0.7862140118913935 0.17049970440407575 97 243 24
-0.6627029224179362 0.14765593976885233 0.09367362161715052 21 209 145
-1.4116265222556061 0.03056058521559804 -0.18932094988234693 19 194 175
1.2066660392453776 0.403707857539042 0.2639785581893623 250 79 25
-0.45113603832355126 1.4094176147962194 -0.2353314883417621 51 175 18
-0.6342268086915481 -0.5560450111780317 0.5418785653012266 25 108 255
-0.5045747251326724 -0.5088267505099181 -0.3647003667268385 16 60 156
0.439818488365494 0.44982276106618063 0.21423292929232016 227 235 24
-0.20337143767664115 -0.3707955212467676 0.2572939262292751 22 31 218
0.24535879344982842 -0.8254788159892733 -0.17272740085743973 161 16 162
0.19266450878544758 -0.9133942331756348 -0.2557569031373177 140 16 158
-1.223856122580479 -0.2266668648463584 0.16463666395586862 24 229 244
-0.436640193953335 0.6671725632808827 -0.19677553223462563 19 194 25
0.8785185710309045 0.9571124460968111 0.2292337305965537 234 220 23
0.9035583539873081 1.0083183642727616 0.2261160321385933 215 205 22
0.7115887844251025 0.41421067894677305 -0.16075853860509282 165 119 16
-0.23520357574522605 1.2309806289272829 0.2616565536068875 103 249 25
-1.4252765336780626 -0.04391291575640889 -0.17940352875563986 20 196 187
1.4211433943028806 0.4936931721356932 0.2460912185957067 217 74 22
-1.3559365744142013 0.3542634338602299 -0.28259889272435346 18 177 128
0.6457600230381917 -0.09633274296833168 0.15043644526312122 244 24 77
0.2566021696567794 -0.8411823175988259 0.21353161935368756 246 25 248
0.3379913330982395 1.134014553387686 0.17831956371765206 179 243 24
-1.0678092428205013 -0.11173481717251185 0.5100667259129107 25 255 249
-0.45652562670980457 -0.7748867399887175 -0.3971437430387393 16 20 155
0.1540204234489431 -1.3748070202736384 -0.2496767261971337 120 18 175
1.0238420499586331 0.1888372582997394 -0.562721585801176 153 19 15
0.07327209339952984 -1.307247993293469 -0.17485466579819173 103 16 165
-0.12505619512761212 -0.5283099628525929 0.19125625831175075 62 24 238
1.3124900424378474 -0.12596399613799225 0.2661993588970355 221 22 55
0.6468731626836586 0.322997453033922 0.2789364702610645 221 136 22
-0.37352610574608935 -0.3062166519272805 -0.07760282023764686 20 99 201
-1.2396688347622677 -0.002028274920388873 -0.19009480580756927 16 161 145
1.3350521412881016 -0.04175232578256599 0.2498982880962295 217 22 42
1.0044517801934247 -0.8497887876836042 -0.026251688971972657 202 20 124
-0.06677800719921868 -0.909047647938073 -0.5364646132595718 73 15 153
-0.5941274854453967 -0.4024960288958332 0.27764675515049214 25 140 250
-0.11846610184790063 1.4198523497361153 -0.29311281172644416 92 187 19
0.704045562136163 -1.270260350286809 0.11051872254400537 209 21 185
-0.6589500897377217 1.4328123355239777 0.12084070246118549 41 209 21
-1.4040499709583967 0.1908926556976654 -0.26925701953536585 19 190 155
-0.18146477642620523 -0.6819778643853183 -0.347416606191398 41 16 156
0.5926830517654775 -0.12264477182017211 -0.172520277868061 168 17 60
-0.04828662470362241 0.6154240135725793 0.03396243548822472 101 206 21
0.11377035471603143 -0.930080593254003 0.3262462537329558 182 25 251
0.7767568093770528 0.29654348005575615 0.18318397395468916 241 80 24
0.9169456408456979 -0.9561947697487766 0.2843367187300655 224 22 153
0.3420564907866993 0.44113312832945706 -0.19817742379919945 169 194 19
-1.3975319670343203 0.2104384426771247 -0.2847675175002838 18 181 145
1.2685157954859194 0.7423895811256911 0.27048005295119426 220 135 22
-0.16005074934993718 1.3503621520623503 -0.20996570938392 80 171 17
-0.9760000818655498 -0.7707968060434021 0.26594889819772183 22 99 220
0.42884484163561953 -0.5203219705832881 -0.1598658831622458 166 17 111
1.1638336256899828 0.26158806908851306 -0.34022019771042045 156 30 16
0.45996674163143275 -0.17658149511244814 -0.26347582786144697 190 19 81
1.087871502186838 0.04381349021619885 0.41304978128475034 253 25 42
-1.160326824523088 0.937489366288234 -0.24079414069588462 17 174 69
0.23676823911548905 0.48430854148180447 0.1550594416649848 165 212 21
0.7566072757711445 0.6287211488046601 -0.5253969098512983 153 133 15
1.162333939770778 0.7410085574921601 -0.17490785408774784 169 115 17
0.08412506931049818 -0.9784615267783081 0.443625958547003 173 25 253
0.9773344031839586 0.38088151278386567 0.462324075010126 254 91 25
0.1868745499336715 -0.6470002638092933 0.14340743086871843 210 21 203
1.1931420082223252 0.682631644924039 0.18343108072533015 241 151 24
-0.6243800898340818 -0.058583135615462564 -0.0062103897724936526 20 204 183
0.421911724887 -1.1861468649369031 0.2697581513946703 245 25 250
0.24591387060158812 -0.7779223794027105 -0.17799418230715192 165 16 164
-1.0412327886403403 1.0440462720469763 0.16852271485330889 24 241 73
-0.29824024583724346 -0.3441279241054029 -0.27344936125679964 19 62 188
0.4054650514701964 -1.0568448922002707 -0.4907624518486944 154 15 153
0.021053055304373063 -0.6424223158516743 0.21003219115189453 134 21 214
0.6270862404887487 1.0596803725810489 0.22481514080155462 211 235 24
-0.6298094844453408 -0.0963569609790461 0.11559628765680241 21 209 196
-1.146615126573834 -0.14672718994856376 -0.34553122440274214 16 156 155
0.7736784742610949 -1.1521233546823861 0.22798883774478412 215 22 173
0.4024150824061892 -1.0141634692836474 -0.5477689557092373 153 15 148
0.21544204637779246 1.3055583200999845 0.26666139455794946 144 220 22
-0.46919169302397284 1.4234012327647083 0.2960865235203095 68 226 23
0.555373412772713 0.5484017013415011 -0.21406991200390024 160 157 16
-1.270699070834116 -0.1023958584591178 0.17644714673448375 24 242 237
0.760335830512426 1.092716852859977 0.3005444547507884 211 221 22
-0.08302019732780658 -1.0106133468778975 0.5063945503679188 118 25 254
0.5186870568969857 0.3662205214083938 0.2973736706066068 224 198 22
0.7661948132323035 0.25473256991967613 0.1727463151134001 239 59 24
-0.05839044124131321 1.0413495738187823 -0.5157559568525014 78 153 15
-0.4033438173860191 1.2661950657431063 0.20656793321833058 78 248 25
0.7036965090375804 -1.1788472299405706 0.2692043336867408 231 23 195
-0.27250948281000464 1.4119813394474465 -0.24116102951398083 79 191 19
-0.3976760097604174 -0.4907615915729969 -0.24942936821772077 16 46 159
0.5941678901145551 0.13168369672461597 -0.07525503092727084 201 20 23
-0.21211454394388196 -0.6518670059221265 0.25300193466497006 55 25 250
-1.0722001280033984 0.2976579579971824 -0.5255896061331318 15 153 107
-0.8599600945808373 0.11073929846881042 0.2534335130926636 25 249 194
0.6121957015134519 0.016847728160378467 0.2445435846548804 233 23 52
-1.033802478733479 1.1281895951569516 -0.2755759761088452 18 179 50
0.8263236160699716 0.35275985513124036 -0.16844085962216393 163 78 16
1.1191306432183896 0.6828467173409147 -0.20820768258118955 161 108 16
-1.0915051095014516 -0.6789948775264488 0.20588061954005388 22 121 215
0.17287351997953776 -0.9438860702624003 0.32492172710476874 205 25 251
-0.9850283507552186 0.5989363871589495 0.537250923503314 25 255 129
0.601265917784477 0.1612780007750595 0.2477756682494092 217 22 22
0.051279752381996405 0.6509840036969053 -0.2678786368732071 105 178 18
1.0720585743962654 0.37047683695734224 0.5621322994888514 255 81 25
-0.20196194417696536 -0.36639431450744697 0.19590213536221046 21 27 214
0.9455093674484002 -0.9252461350997161 -0.21261110725302512 193 19 129
1.043010517095948 0.7197416381027264 0.2395041817753394 249 180 25
-0.06928817545415847 1.0238030117009747 -0.559080991260097 77 153 15
-0.1782316612102112 -0.385529032631479 0.2035834310701479 27 22 215
-0.8175371736593531 -0.6107482039086176 0.29832092417166267 25 120 251
-0.5814898682776638 -0.1707262584898721 0.25525702502337044 22 211 218
1.2471826716289585 0.5539653419107098 0.17626167889490563 244 110 24
-1.252964776828329 -0.513694015853796 -0.22702378893337236 19 139 193
-0.5728739214296829 1.429652492304365 -0.06941836352771952 50 201 20
0.009286617302141632 0.7834308092715163 0.199178750769576 135 246 25
0.7382879876119898 -0.9173658014229658 0.22408778161039747 248 25 182
0.4206192868435564 1.247832444586449 -0.2233578469883431 147 193 19
-0.450355534127725 -0.7311985198204116 0.5131061109057369 25 36 255
0.4625564398171501 0.5232862821384985 0.1671430049150791 233 244 24
1.1431056169628981 -0.08408509669191369 0.19016647002632864 247 25 58
0.10157496772020251 1.349197384019626 -0.19480040047226993 117 194 19
1.391688353102101 0.5793039161382085 -0.2294072533818149 193 85 19
0.7473757281559237 -0.8373659107801532 -0.2525032220933193 159 16 110
-0.2907618780854564 -0.42366230923348797 -0.18635939446031186 17 40 169
0.07894084400517482 -1.408144175464211 -0.21423382547196096 121 19 193
-0.43994922677428616 0.842237190527557 -0.19648807938477228 27 162 16
-1.2503775815096074 0.9310304497293771 -0.14635208541332292 20 198 84
0.4037880454989411 -1.4161800757348835 0.27858009064140377 196 22 221
1.4341555966517414 0.5224404523042858 0.06715029764716983 207 74 21
0.44527395003011444 0.9850662323290136 -0.2962363817169973 129 158 16
-1.1319435928962254 0.7034401021820311 -0.22935155972131532 16 159 81
0.9625544720021243 0.07727157090160089 0.5231514206817607 255 25 39
1.1176489380862595 0.6641760434714498 0.22636808820851004 248 162 25
-0.5768190462628161 1.3663054101796783 -0.21676114169904612 41 173 17
-0.7593912325582126 0.3478565179954374 -0.16230122539561254 17 167 93
-0.7048603555577869 -0.9273459051645689 -0.2714426273147113 18 43 181
-0.031691113002353104 -0.5762710592395147 -0.16151731734510522 97 20 196
0.1110884662525462 -0.8062428105102097 -0.1616157355711228 134 17 167
0.9315222338763138 0.3598146550353682 0.37996569961511806 253 94 25
-0.28834798244560417 -0.3551874171353262 -0.30996804477889983 18 48 184
0.8523594340490064 -0.9540666757787393 0.24994256412323407 233 23 162
0.020729639651120294 0.6167149455825768 0.28832363830427965 124 221 22
-0.543417911676688 -0.23466389072306001 -0.21515052572099774 19 158 193
0.9121156132189551 0.4637086883560837 0.43431059847585385 253 145 25
-0.17295420519010712 -0.8087437085683566 -0.5385887268678615 51 15 153
0.7003192745875463 -0.7185853999259739 -0.45641939575439305 154 15 101
-0.4745992655541595 1.4402896491127402 0.1925067891642902 65 214 21
0.845246806440075 1.0513399933116285 0.04710976216377841 207 206 21
0.32867384350074835 -0.9077371560779898 -0.4234068926599423 155 15 149
-0.4502101990327566 1.399201603312127 0.2651286878956056 72 229 23
0.38846013619427666 -0.7375934584669964 0.24015304106989913 249 25 200
-0.7152844694704734 1.00062364096087 -0.549886898712094 15 153 26
0.21395796792895888 0.9044911070264631 -0.5345392075470436 106 153 15
0.07247944178843858 0.5688469806804182 -0.2572795592005438 119 190 19
-0.1513387273657752 1.3935882574516574 0.28232772291225783 106 227 23
-1.1492141549789392 1.0714512039078277 0.2915722292898063 22 221 76
-0.775121038806665 -0.31033793319311964 -0.34727425324147765 16 128 156
0.25339167507550114 0.9595915243264046 0.4982154137711837 181 255 25
0.6569191357770299 -1.0857699462916697 0.15307821808890643 243 24 205
-0.7613402748283156 0.6165179361979936 -0.2604275625665242 16 159 63
-0.16551193289109364 -1.3016666921849456 -0.0059736897884263215 84 20 204
0.4400396405188949 -0.2939810241994611 -0.2736310164034239 179 18 91
0.44892182309834666 -1.2047450643634525 0.23828043663542847 247 25 249
0.4449720180014064 -0.47754186329386417 -0.18193547800726106 167 17 105
1.1983177749003944 -0.41303000930947453 0.2972002584358612 221 22 88
0.5013748101102675 0.5448352863568944 -0.22839372071609348 154 159 16
-1.3073216365802924 0.4305503322494413 -0.19656405204680577 17 169 115
0.066929478804622 -0.6956626377152181 0.18972931862620984 163 21 214
-0.20436649054263342 0.6816897728736396 -0.151658118679739 70 196 20
0.5994398925712418 0.6427528698388445 -0.47039351054477635 154 151 15
0.21075390670639363 1.2271000024964696 -0.19844726728562517 112 171 17
0.3690412639500428 -1.31802374693343 -0.17948185399394745 149 17 168
0.8322015502723741 -0.5819552869551902 0.3992426326657146 253 25 138
0.45548325894776664 -1.3722181160409317 -0.2524817376202887 165 18 178
-0.3477791087847799 -0.6660414569465372 0.5433933190675861 25 29 255
-0.09419205930321518 -0.5566230607194074 0.2120729676755821 78 24 237
0.47580964150011623 -0.5030956826033096 -0.18356236124218625 162 16 104
-0.09060556400746815 -0.45258109022368465 0.12079094340381487 61 21 210
0.204212772735185 0.6140174003765255 0.1732703595226232 174 241 24
-0.0067085311143310995 -1.034148600756963 0.5302279621021561 146 25 255
0.2016893721886619 -1.3766584150356678 -0.18915401178009045 123 17 170
-0.5046603914141522 -0.3276367096437496 -0.22743445619424804 17 112 174
-1.3240644033060478 0.07781521604885627 0.1861787172769781 24 239 208
-0.6132918867574861 0.49165529682738823 0.2538414846245494 22 217 83
-1.1356986864247354 0.24770252151000033 0.45890915874288774 25 254 187
1.0622463968124187 0.31380064221010207 0.5435791532631673 255 67 25
1.1643620728336088 0.7055083451056262 -0.17079325318135968 167 109 17
-0.08453379150947798 -0.8050012306291873 -0.3526623816106917 68 16 156
-0.02828731531473943 -0.9660888917603353 -0.5581635319867808 82 15 153
0.5609194105968119 0.4517972739353521 -0.17598274890173862 166 151 17
0.029553249378389792 -1.2241697314887912 0.22034229008905215 145 25 247
-0.8151793038727628 1.2867114264424584 0.22144808911489275 23 234 27
-0.5068222253295857 -0.24187547710861795 -0.07214890173181066 20 156 201
-1.3277103477596375 0.6359823401204052 0.28217264408178744 22 223 131
0.6570193705917807 -0.612086214948699 -0.5409193966281658 153 15 94
-1.3499917475414411 0.49141885909425587 0.2896188587159856 23 226 145
-0.23010714847518932 0.7338916187935676 0.26540310477752727 79 230 23
-0.19902197554831347 -0.6610386869041496 -0.29796756961196114 39 16 157
0.4652245132587486 -0.9927703093109148 0.5219107230534665 255 25 229
0.09989186264069225 -0.8432835381199166 0.18200958607487464 185 25 246
0.1697923740575061 -0.7821737763353998 -0.19202649304924269 159 17 169
0.6496695855367114 1.1086882126386621 0.25661025589081055 196 218 22
-0.24010050089311463 1.4327049968178873 0.27858494557786817 93 220 22
1.225519418400728 -0.12524222182851147 0.2118539129925638 237 24 59
0.19106626644117583 -0.89133382465774 0.23541294584313496 210 25 249
0.8462868446652154 -0.3464426517078959 0.5534939964789383 255 25 108
-1.3027548877984658 0.804069479486524 -0.19002789829232614 19 194 98
-0.6810808195575149 0.2807269142019251 -0.2841394884289751 18 184 108
-1.046101311863812 -0.6332190136819962 0.2076110053198963 24 135 235
0.23120601006731156 0.49485287415213697 0.3188831806641538 172 221 22
-0.2935491255218605 -0.6077605954158266 0.354435827038199 29 25 252
0.3447974402772449 -0.4287700286630949 0.08945612411469181 209 21 134
-0.8106220512448046 -0.8315284518081083 -0.2441366387319244 18 58 175
-0.9305384964511996 1.020396395785878 0.22756275382733096 25 248 68
0.6611010034083146 -0.8599216257202789 -0.4101282670454566 155 16 114
-0.11922216007175121 0.8143287332885566 0.1741480618721702 107 244 24
0.5917997229402936 0.9170909685675991 0.3015778446474158 229 251 25
-0.37655196882811637 1.4437001641987157 0.2653234659038469 76 220 22
-0.6499849383197552 0.006608877631809451 -0.07290849990966847 20 201 164
-0.5377066862282264 1.1770034041870518 0.38190503583052526 53 253 25
-0.2515117715301616 1.0496629200665246 0.5490186023914091 98 255 25
-0.627269182969999 0.368852350576428 -0.20076849373336791 19 194 96
0.5569462839370012 1.1659023122117702 -0.25569129244568056 155 187 19
-0.7413862046529258 -0.10781450614690846 0.1745942046949588 24 240 225
-0.016252604403356703 -1.212501575597298 0.20027785195678258 139 25 248
-1.2103852145302605 -0.5093506210187259 0.28763602816967865 22 162 224
0.4220545210830224 0.4886873705849625 -0.21561793517357605 162 173 17
0.15973496525926217 -1.2240060165667208 0.24884761157967455 180 25 249
-0.44356572203992706 -0.35458556226137045 -0.20305238840278386 17 84 170
0.6317434085064351 -1.1980847632692162 0.22362730809159043 235 24 211
-0.10591495910357145 -0.5152002689141808 0.24525005551564877 76 23 231
0.3121015665284973 -0.49169342629613555 0.2579185109302804 218 22 155
-1.283966719760673 -0.062155797036069965 -0.17413865305828763 17 167 159
0.9198309403348442 0.419732334148801 0.44246127139512065 253 118 25
-0.18024860607738744 -0.40026804217569545 -0.27481357939802364 19 19 187
0.7801580368851858 0.8733835962788008 -0.20444353549981073 160 155 16
0.39176694190720573 -0.3115454439805774 -0.15101990221888886 198 20 108
1.4132637456557176 0.44670247780538674 -0.21525170139850552 193 58 19
0.17613805027434348 -0.7221762742298208 -0.2828882905607548 178 18 179
-0.3342914912963052 0.6930052420964006 0.1622746930251815 47 212 21
-1.3507772224321082 0.2519431728723963 -0.20915458954065674 17 173 134
0.5329499014782106 0.9715042581488517 0.24700389124637867 217 249 25
0.15302414733690092 -0.6790146362929975 -0.12305344875590837 192 20 199
-0.015112707053558196 -0.6451496769716649 -0.23474438217072183 88 17 174
0.7673139015373311 0.39411762326876315 0.15615387060005004 243 149 24
0.8220563389605419 -0.39864301934187435 0.531680052691831 255 25 119
-0.42959051095192785 -1.1652270321864484 -0.12427335797971563 44 20 198
1.1841632255699657 0.8193217074862615 -0.2646982078689264 188 133 19
-1.3679461033513547 0.5044156869807596 0.263280412149432 22 218 143
1.180667175049668 0.8431691358015653 0.15707200447488712 212 156 21
-0.7310129997402741 1.008122661686286 0.5249124512646396 25 255 46
-1.379077610239722 0.1459926521880982 0.2686528728806118 23 231 192
0.7281549317729616 0.32406868337852585 -0.16332907337058983 169 74 17
0.24100305699345262 -1.2894424833941542 -0.1802391068312974 128 16 162
0.6715802256904438 0.29664991667122387 -0.2453313870781194 190 73 19
-0.5791068485921333 -0.36325322552910666 -0.1629988292515947 16 100 163
-0.606207291617375 1.317230455500958 -0.1624985094714692 35 167 17
-0.11494304136289137 -1.3015437332130426 -0.29158621773223636 85 19 188
0.27455108935387923 -1.1024398607966934 -0.5502051792295997 134 15 153
-1.2513211813210696 0.8528397556157272 0.30988594963031696 23 226 105
0.3802645093593539 1.2238487607201791 0.2581605876135955 171 229 23
0.44661923375852053 -0.8995629019888698 0.5140193458939664 255 25 225
-0.8800228333119644 -0.5834227853699822 -0.3012424586289295 16 84 157
-0.7710015854472589 0.18467061208419974 -0.17129088362500405 17 169 115
0.3488280199905547 0.5548089980378554 0.16296316777721204 210 244 24
-0.868072412739242 -0.7371881959426808 0.17069774378967392 24 99 240
-0.10735189308117582 -0.6148811149428096 0.17792979674998172 87 24 243
-0.9225318623968284 0.32035389297888905 0.39790463035488777 25 253 162
0.15150960883391826 -0.9130991545550452 -0.2863243048591846 125 16 158
0.41214566968376476 0.4927748754984651 -0.18461802461618643 157 169 17
-0.28244428860284776 -0.752836888033543 0.5568681023731996 50 25 255
-0.11041724488832294 -1.123266453973773 -0.2653736188180633 76 16 158
-0.4184416020609306 -0.31302298927608396 -0.06596347746150943 20 118 201
-0.4339339361492406 -0.30883546904220255 0.2930516226330383 22 131 223
0.08079741392386008 -0.9663185252676927 -0.4781163117042051 103 15 154
1.040890910421608 -0.6276408098264177 0.25357812453825584 231 23 120
-0.36940470725336305 -0.5564902931703652 -0.38373433906065907 16 28 155
0.14941081910161108 -0.953586134423218 -0.3884282236802274 119 16 155
-0.11615070307468876 -0.565804602968286 -0.16610642536504594 49 17 168
0.06659582854630464 0.5758494169534389 0.24165718637881983 133 217 22
-0.36842650805649624 -0.4002002720277143 -0.20523959822267154 17 61 170
-0.16286313297844712 -1.2662952181677012 0.291872486508518 96 23 226
-0.6990782277031805 -0.07010018045660642 0.2563181476095618 23 231 214
1.1540975811143217 -0.4683655899410134 0.26483339532245354 230 23 98
0.7548823462211769 -0.6059924062453266 0.4841534271256475 254 25 149
0.6568714631973565 0.3042000062234412 0.277101938533595 220 117 22
0.9180694228297616 -0.9364437820460094 -0.2501666704739556 191 19 128
0.1531160736349455 1.3146830220733743 -0.30233624225783695 115 184 18
-0.6218824513413658 1.2364269449681997 -0.22904671642041247 27 159 16
-0.4518465248236695 1.0805441998612568 0.5388429266342273 60 255 25
-0.09042255246339986 0.754297994262352 -0.20663148968769088 79 170 17
0.532120945209277 1.0406729300181417 0.16342313938988828 210 244 24
-1.2954938513988907 0.12798040504450026 -0.16694068485380306 16 165 137
-0.2311485544762149 -1.262601580572241 0.008920316044128455 76 20 204
-0.47797323038965783 0.6551200843817377 0.257837752826036 22 218 37
0.37432749179007535 0.8678816529916934 -0.5283766320389506 123 153 15
-0.8537769101686714 0.22655792494166505 0.23354701808568343 25 249 173
1.380319423395846 0.4434418373356783 0.2952099730043835 227 72 23
-0.0010570947185364402 -0.5752823277777391 -0.1514279907399296 104 20 196
0.19738354094735747 -0.9855167421883317 -0.4630655914269063 124 15 154
-0.34400279237637926 -0.31482489500982813 0.07067323315579274 21 96 207
0.6868181871951233 -0.41658197066027375 0.48875075652758593 254 25 125
0.9742937519430035 0.5792470979811992 0.5035477576106601 255 163 25
-0.10483518608313194 1.1774833982962827 0.3455625603078569 120 251 25
-0.04961535337946159 0.7048092466508634 0.20051636054264735 116 237 24
0.16546158781839146 -0.757097748549441 -0.22062148414234145 156 17 171
-0.907912902122205 1.023031392886625 -0.26304155028516774 16 158 39
0.49124186744553905 1.206561072004312 -0.05102743096362598 163 202 20
-1.2236674882337584 -0.2487581127114391 0.15477643209923175 24 221 242
0.32898260074694813 -1.435316459327211 -0.2784403263013398 153 19 187
-0.5556145710524181 -0.22884020550354858 -0.19621511440300812 19 167 194
-1.1053375335535212 1.1193062244192338 -0.13137830075990942 20 198 60
-0.15994651521675918 -1.319559540748002 -0.007220450476405211 89 20 204
-0.39536582597088205 -0.33310974110957625 -0.2959586404193455 18 87 182
0.840076839353872 0.5680187460617394 0.5288070932018771 255 198 25
-0.3372273834456877 -0.5547956219414334 0.26824354407841594 25 35 250
0.41284763861102725 -0.6105471633326407 -0.14359670725779272 163 16 118
0.7183769337423012 0.05271760935213307 -0.16650955505043868 164 16 30
-1.1896052501334164 0.8078409987360343 0.19373135418019602 24 238 111
-1.17764168685011 0.5985715297333885 0.21514255503554527 25 248 139
-0.4789210397255048 -1.1197127411662766 0.05945915953856068 35 21 207
-0.618179994979765 -0.9388264256138384 -0.23822449647056732 17 29 174
-0.29279171255293646 -0.5673435096986646 -0.2921330672528669 16 20 157
-0.23634158857848062 -0.3207252065242494 0.11089415086088623 21 46 209
-0.38226116493284606 0.8330910116277089 0.18347304965571692 54 245 25
-0.1534286922515184 1.1122493386555206 -0.46806813592663127 70 154 15
-0.4274534478706902 -0.646627652445666 0.5271788945623332 25 46 255
-0.49165112980106096 1.460423226238114 0.030539642878012613 60 206 21
-0.0763843722633709 -0.6579578467418497 -0.1582668296138805 75 17 167
-0.04043433406558942 0.7522406754611286 -0.17087092766812956 86 165 16
-0.5103978773569107 0.6490912655214902 -0.27548727352010705 19 190 37
-0.7276043820116455 1.31882850933788 -0.19136585631955882 22 170 17
-0.8005796718071894 0.5524994086326283 -0.2685509751185874 16 158 71
0.009645763440218218 -1.1716548979381989 0.28926561857191724 144 25 251
-0.1685472981315723 -0.46192615199353243 0.26631684090102886 39 23 230
-0.7355191551403002 -0.13574187323767115 0.16211635954202144 24 242 241
0.4266141823303024 -0.6926888005647939 -0.2781161528093472 158 16 123
-0.164867346777953 -0.399027396396245 0.27409113882725616 31 22 220
-1.017747521496614 0.9281425949936261 0.21941027538685673 25 248 85
1.4335985872506134 0.4811353243555933 -0.0813728602710282 201 66 20
-0.7171815759945092 -0.9325246609315097 0.28559681085714217 22 49 221
0.15531996781583882 1.09945005509914 -0.2847361133319709 101 157 16
-0.8776694119184819 0.3584938528095863 0.27472364683843753 25 250 150
-0.5304945862207247 -0.2805348048112693 -0.2923488154741954 18 135 184
-0.6828758076264898 -0.21599398253139981 -0.174092735354542 17 153 168
0.7466718432206614 0.35565107247079547 0.21675297858267295 237 139 24
-0.993644392296188 1.2141102199450395 0.2971391860906437 22 224 50
0.678043770349432 0.4923814169833296 -0.26126259653988027 159 136 16
-0.06573435516538037 0.682699236658683 -0.2802156292652527 88 179 18
0.16790156070481563 -0.8885066413490336 0.21475408756318656 213 25 248
0.9674486352879407 0.41337151031851593 -0.5156704813763501 154 61 15
-0.8548541132947598 -0.882632369595227 0.24162561864847648 22 69 217
1.3449984542597138 -0.08702843234452179 0.00922648438256345 204 20 45
-0.2815690131520795 0.8603919986789025 -0.19247881758873595 53 162 16
-0.9773951170127894 -0.7605428871499728 -0.01875294969541261 20 91 202
-0.24675397017377065 -1.0002380189988742 0.26664253746797684 76 25 250
-0.7921742648556322 0.2889535015445267 -0.1720728551770762 16 164 101
-0.9290743756311283 -0.6640898288009787 -0.16582079526336949 17 84 166
-0.8565152089936954 0.2092027495769514 -0.19458252759860775 16 161 112
0.9702861327223198 0.9453032564414501 -0.2873032898543362 185 166 19
0.6254925831102023 0.3164054493394777 0.2717737150569062 218 149 22
0.9266669607700276 -0.9272005071057271 -0.1551113011488705 196 20 131
-0.7635377382323221 -0.47859675973272364 0.5468576700867868 25 150 255
-0.600724217244909 0.6855410510310643 -0.1965991612087208 17 170 42
-0.08191775466990515 -0.4868619964589461 -0.27452397596621614 59 19 185
0.7048122530849787 -1.2303732649175714 -0.19283139722834303 194 19 169
-0.8626968630413299 -0.4186400315663969 -0.5306962336895678 15 104 153
-1.127884619248769 -0.2894997416744389 -0.27741315183269644 16 140 158
-1.052681065604984 -0.2334544150890258 0.48386276960911206 25 232 254
0.19031062652871045 1.2066422140707846 -0.16635300064629122 109 167 17
-1.0159454589685029 -0.11070059805674198 -0.5437876264539357 15 153 148
-1.2966164704791858 -0.18987806029392196 0.2050462181398096 24 232 237
-0.8975672507597063 -0.19403074616942367 -0.481783146072279 15 147 154
-0.6913562478402293 1.1953279307167086 -0.22515548418788436 20 160 16
0.6849369628636625 0.1501161916406768 0.20949165940594422 237 24 24
0.0487589765470204 0.6541586304385475 -0.2487970970246467 104 177 18
-0.022150100203496625 -0.7942420047133938 -0.1850844721780968 88 16 162
1.2921842588720134 0.5802102791464734 0.20214501887595107 238 111 24
0.5178343830430666 -0.14383066017249277 0.2895879553963232 227 23 87
-0.28860684862181685 -1.0144293443844048 0.20869046717789627 68 25 248
-0.3960044786517305 -0.9653061719386478 0.16511354709614345 45 25 246
0.3717867117666943 0.4101186466549581 0.12960796260447055 195 210 21
-0.15956632539469412 -0.43509983533455865 0.3035253975340306 40 22 223
-0.657859598491861 -0.3912084575013525 0.3264554645838037 25 161 251
-0.3851993917609461 -1.097598975537492 -0.24029273951873914 41 17 173
1.2589698838870527 -0.28013764244540246 -0.15107809719019386 198 20 65
-0.8081390069893903 0.042307412403416095 -0.1621500420803313 16 164 134
0.9322021797538526 0.2910953741256662 -0.40801483578251074 155 39 16
-1.030919157440217 1.2157986350782597 -0.2574581769776249 19 190 47
-1.2442716217847103 -0.18176152647349364 -0.1472275608932113 17 160 166
0.7223768387499128 0.25859451793839205 -0.2534419618004656 174 43 17
-0.24773986966529715 0.7149187861348683 0.295155575754063 69 227 23
-0.9078742760643399 0.4386827759641057 -0.41447765932571634 16 155 87
0.714228295439484 0.17927712307824717 -0.19392296300257938 169 19 17
-0.0839555537476974 -0.47838350932478424 0.2572839688828445 63 22 218
0.6659125516135486 -0.762910746207635 0.4867934531464249 254 25 173
-0.01663303605968884 0.6934335304216126 -0.19683336468555493 93 170 17
-1.2686941148990811 0.7176956979665597 0.24547287836907636 23 233 121
-0.45489948133490693 -0.33893641307601696 -0.25843353988272155 17 93 174
0.9876108801405483 0.6564785245837448 -0.3744226874178158 155 112 16
0.9075004030771336 0.5761371600755701 0.5484946663272348 255 177 25
1.0607115983686075 -0.30925397618601647 -0.20211551234796915 161 16 60
-0.644543442474728 0.1682203242412988 0.09435190241503325 21 209 140
0.25358852888122485 -0.5557169074946714 0.06410293670527731 207 21 164
-0.02617735958703907 -1.1495933932238867 -0.3051968819300604 86 16 157
-0.7124609670094744 0.17407156687108144 0.2525351186403369 23 231 161
-0.22662364567925267 -0.3267086408134227 0.04077674979747084 21 46 206
0.32459061735752676 -1.4437377649160226 -0.2745895998100286 155 19 187
0.224095367641057 1.3450303810525188 -0.14152904027820198 129 198 20
0.48717421215438783 1.233129327290507 -0.12134800440903504 157 199 20
-0.7239437518873764 -0.29843163492964864 0.2764432853619147 25 201 250
0.6616221887688237 1.0051334115142092 -0.15300864836576114 153 166 17
0.7120857807120695 0.36717039923342315 0.21044218556115846 237 152 24
0.4427013296517214 1.063511023963214 -0.15875267095066278 132 164 16
0.7830491428423171 0.42119717935728657 -0.1781394433505496 163 98 16
0.13640256062242798 -1.2349001280896748 0.2735214719306786 174 25 250
0.1932309479096231 0.7764696751326257 0.3172780894123131 175 251 25
0.8958953825600002 1.0210928594691246 0.012084120086391504 204 194 20
-0.5894257975072413 -0.138293503217945 -0.16596334945633906 20 195 196
-0.26725487326978725 -0.6089538558372591 -0.32291102427656515 22 16 157
-0.6298922700370221 0.5548511154117497 0.27897820588638417 23 229 79
0.813263229024041 0.6457128662202785 0.5571580210534262 255 212 25
0.9224046141716068 0.24387392105591724 0.41824757892380476 253 53 25
0.4938337650393885 0.6539958998164109 0.3982490218296814 234 253 25
-0.16536197093317173 -1.2274813662048092 -0.22256174592262207 71 17 173
-0.9496122890312333 1.2474661752643676 0.2841250384873412 22 223 43
1.00674168948104 0.41780696177195353 -0.5321416967843672 153 63 15
-0.8489744655615603 -0.8412273673320438 -0.26567124858702945 19 63 190
-1.0351087924793325 -0.3100090378559596 -0.4481291899143359 15 131 155
-0.07017646182732522 0.812808788072592 0.18595780831418898 122 247 25
0.7183515213465176 -0.6755747549031341 0.4823777271435479 254 25 160
0.6578551373071657 0.8701425850993092 -0.3063125482876556 151 157 16
0.3622804964429899 1.1317794721547294 0.16110256811707263 181 241 24
-0.18334623944546263 -0.689326706531123 0.28811794560162846 73 25 251
0.6478511665614121 0.2058132253489431 -0.13747208987956866 198 44 20
-0.27552803112417074 -1.1835953704429927 -0.24864951740766697 58 18 175
-0.41866974883710306 -0.4957428216197771 -0.2992659568522832 16 46 157
0.02601653539614302 -0.7492409660506907 -0.1881846925853693 105 17 168
0.07617668536983187 0.6073645107398441 -0.2729798723764955 112 187 19
0.8200115602552931 -1.1104059476130645 0.23402732503327317 217 22 168
0.05292270590494314 -1.1504013907664767 -0.3820716204841215 96 16 155
-1.0099253117176556 0.565777936608573 -0.5682311091571387 15 153 80
0.713614927328352 0.3208132551599975 0.2559277603125657 231 120 23
0.5909761742165816 0.9633823512342041 -0.22249218169598814 144 160 16
-1.3781195071702856 -0.09443229342018633 -0.2854110426056812 19 188 184
-0.2652473889649313 1.3139188943488291 0.1823355231902614 95 240 24
-0.43147174019026546 0.6855640361437976 -0.06226561788264482 20 201 23
